# .PCD v0.7 - Point Cloud Data file format
VERSION 0.7
FIELDS x y z rgb
SIZE 4 4 4 4
TYPE F F F U
COUNT 1 1 1 1
WIDTH 1164
HEIGHT 1
VIEWPOINT 0 0 0 1 0 0 0
POINTS 1164
DATA ascii
1.1505494 -0.84658748 3.1840003 12501175
1.1526695 -0.8420673 3.1670001 12435380
1.1550677 -0.8378132 3.1510003 12435380
1.1514753 -0.82930475 3.1190002 12435380
1.1421392 -0.81680799 3.072 12501173
1.1389225 -0.80883133 3.0420001 12501175
1.124616 -0.79314393 2.983 12501175
1.1107609 -0.77798831 2.9260001 12369589
1.1027241 -0.76708698 2.8850002 12238001
1.0948581 -0.75645137 2.845 11909036
1.082134 -0.74262524 2.7930002 10462110
1.07967 -0.73597801 2.7680001 9082007
1.0770755 -0.72933078 2.743 8753296
1.0842324 -0.72933078 2.743 8687501
1.0866148 -0.7261402 2.7310002 8817802
1.0889345 -0.7229495 2.7190001 9080974
1.0960288 -0.7229495 2.7190001 9936534
1.1031232 -0.7229495 2.7190001 9870743
1.1053176 -0.71975881 2.707 9937819
1.1123806 -0.71975881 2.707 10003612
1.1244061 -0.7229495 2.7190001 9937819
1.1315004 -0.7229495 2.7190001 10134680
1.1436198 -0.7261402 2.7310002 9871506
1.1507454 -0.7261402 2.7310002 9739920
1.157871 -0.7261402 2.7310002 9541778
1.1649966 -0.7261402 2.7310002 9410192
1.1721222 -0.7261402 2.7310002 9607571
1.1844293 -0.72933078 2.743 9869455
1.1915863 -0.72933078 2.743 8355955
1.1987432 -0.72933078 2.743 11053727
1.2059001 -0.72933078 2.743 11909036
1.213057 -0.72933078 2.743 12040872
1.2255522 -0.73252147 2.7550001 12495783
1.2327404 -0.73252147 2.7550001 5777974
1.2399286 -0.73252147 2.7550001 6435904
1.2471168 -0.73252147 2.7550001 14266804
1.2543051 -0.73252147 2.7550001 12762033
1.2614933 -0.73252147 2.7550001 12040363
1.2686815 -0.73252147 2.7550001 11448228
1.2758697 -0.73252147 2.7550001 10856091
1.2774693 -0.72933078 2.743 10395288
1.2846262 -0.72933078 2.743 10658460
1.2917832 -0.72933078 2.743 11316649
1.2932576 -0.7261402 2.7310002 11975866
1.3003832 -0.7261402 2.7310002 11515315
1.3017635 -0.7229495 2.7190001 11186352
1.3088579 -0.7229495 2.7190001 11844797
1.3159522 -0.7229495 2.7190001 11581371
1.3230466 -0.7229495 2.7190001 9741218
1.3301408 -0.7229495 2.7190001 9478046
1.3372351 -0.7229495 2.7190001 7832190
1.3383963 -0.71975881 2.707 8160638
1.3454593 -0.71975881 2.707 8357766
-1.533854 -0.73876047 2.8060002 16580606
-1.5194604 -0.73533785 2.7930002 16580606
-1.5051346 -0.73191524 2.7800002 16580606
-1.5118902 -0.73876047 2.8060002 16580606
-0.11738407 -0.080300048 0.30500001 13499391
-0.11658827 -0.080300048 0.30500001 4551543
-0.11617214 -0.080563329 0.30600002 2505800
-0.11537374 -0.080563329 0.30600002 2700865
-0.11457533 -0.080563329 0.30600002 2437429
-0.11377693 -0.080563329 0.30600002 2437429
-0.11297853 -0.080563329 0.30600002 2239789
-0.11254673 -0.08082661 0.30700001 2304812
-0.11174572 -0.08082661 0.30700001 2304812
-0.11130609 -0.081089891 0.30800003 2173224
-0.11086123 -0.081353165 0.30900002 1844259
-0.11005501 -0.081353165 0.30900002 2567469
-0.10960232 -0.081616439 0.31 3290673
-0.10868133 -0.082143001 0.31200001 3291703
-0.10821301 -0.082406282 0.31300002 3423289
-0.10773946 -0.082669556 0.31400001 3160889
-0.10726069 -0.082932845 0.31500003 3227195
-0.10643882 -0.082932845 0.31500003 3292988
-0.10595222 -0.083196118 0.31600001 3292988
-0.10579309 -0.083722673 0.31800002 3292988
-0.10529344 -0.083985955 0.31900001 3292475
-0.10196166 -0.086092189 0.32700002 3555647
-0.21895562 -0.21141292 0.80300003 3686463
-0.2165904 -0.21114965 0.80200005 3752256
-0.21449785 -0.21114965 0.80200005 3752254
-0.21240532 -0.21114965 0.80200005 3752254
-0.21031278 -0.21114965 0.80200005 3752254
-0.20796061 -0.21088637 0.80100006 3818817
-0.20587067 -0.21088637 0.80100006 3818817
-0.20378073 -0.21088637 0.80100006 3818817
-0.20169079 -0.21088637 0.80100006 3885125
-0.19935165 -0.21062307 0.80000001 4016711
-0.19726434 -0.21062307 0.80000001 4016711
-0.099157117 -0.16007355 0.60800004 6312795
-0.097891696 -0.1606001 0.61000001 11369093
-0.096615858 -0.16112666 0.61200005 10776956
-0.095329568 -0.16165322 0.61400002 7818589
-0.094185509 -0.16244306 0.61700004 5593949
-0.092875734 -0.1629696 0.61900002 5135454
-0.091555528 -0.16349618 0.62100005 5069661
-0.090369709 -0.164286 0.62400001 5332319
-0.37846205 -0.82116675 3.1190002 13164264
-0.36842436 -0.81695431 3.1030002 13032678
-0.35858631 -0.81300509 3.0880001 12835563
-0.35052922 -0.81300509 3.0880001 12901610
-0.34413573 -0.81695431 3.1030002 12704231
-0.33777222 -0.82116675 3.1190002 12901610
-0.32963428 -0.82116675 3.1190002 12835817
-0.32314554 -0.82537925 3.1350002 12638438
-0.31657332 -0.82959169 3.1510003 12704231
-0.30991757 -0.83380413 3.1670001 12638438
-0.30479759 -0.84249228 3.2 12638438
-0.29802319 -0.84696811 3.2170002 12638438
-0.29269055 -0.85591954 3.2510002 12638436
-0.28569436 -0.86039531 3.2680001 12572643
-0.27869427 -0.86513436 3.2860003 12572641
-0.27160022 -0.86987334 3.3040001 12506848
-0.26297954 -0.86987334 3.3040001 12572641
-0.25435889 -0.86987334 3.3040001 12638434
-0.24573825 -0.86987334 3.3040001 12769506
-0.23711757 -0.86987334 3.3040001 12835040
-0.22849692 -0.86987334 3.3040001 12835040
-0.2186784 -0.86513436 3.2860003 12769499
-0.21010472 -0.86513436 3.2860003 12900313
-0.20042706 -0.86039531 3.2680001 12900313
-0.19190033 -0.86039531 3.2680001 12900313
-0.18241969 -0.85591954 3.2510002 12834520
-0.17302778 -0.85144383 3.2340002 12899800
-0.16372457 -0.84696811 3.2170002 12899800
-0.15373753 -0.8382799 3.1840003 12768727
-0.14542997 -0.8382799 3.1840003 12768727
-0.13570122 -0.82959169 3.1510003 12702934
-0.12747976 -0.82959169 3.1510003 12768727
-0.11865275 -0.82537925 3.1350002 12702934
-0.10990921 -0.82116675 3.1190002 12571348
-0.10177124 -0.82116675 3.1190002 12571348
-0.093152963 -0.81695431 3.1030002 12571348
-0.084645577 -0.81300509 3.0880001 12505555
-0.076191656 -0.80879259 3.072 12571346
-0.068176322 -0.80879259 3.072 12571346
-0.059867237 -0.80484349 3.0570002 12439760
-0.051381808 -0.7969451 3.0270002 12505553
-0.043483887 -0.7969451 3.0270002 12439760
-0.035233278 -0.78904676 2.9970002 12439760
-0.027413629 -0.78904676 2.9970002 12439247
-0.019593982 -0.78904676 2.9970002 12439501
-0.011774336 -0.78904676 2.9970002 12373708
-0.0039546872 -0.78904676 2.9970002 12439501
0.0038843041 -0.79299587 3.0120001 12504524
0.011743089 -0.79299587 3.0120001 12438731
0.019699492 -0.7969451 3.0270002 12438731
0.027597414 -0.7969451 3.0270002 12438731
0.035495337 -0.7969451 3.0270002 12307145
0.043608289 -0.80089426 3.0420001 12241352
0.051545352 -0.80089426 3.0420001 12241352
0.059482411 -0.80089426 3.0420001 12241350
0.067419469 -0.80089426 3.0420001 12307143
0.075728111 -0.80484349 3.0570002 12307143
0.083293587 -0.80089426 3.0420001 12372422
0.091230646 -0.80089426 3.0420001 12372422
0.098678716 -0.7969451 3.0270002 12372422
0.10657664 -0.7969451 3.0270002 12372422
0.11390729 -0.79299587 3.0120001 12372422
0.12115967 -0.78904676 2.9970002 12306629
0.12837681 -0.78536081 2.983 12306629
0.13547526 -0.78141165 2.9680002 12306629
0.14254367 -0.77772576 2.9540002 12306629
0.15025114 -0.77772576 2.9540002 12306629
0.15720995 -0.7740398 2.9400001 12372422
0.16409574 -0.77035391 2.9260001 12306631
0.17173013 -0.77035391 2.9260001 11584455
0.17850633 -0.76666802 2.9120002 11651279
0.18520947 -0.76298213 2.8980002 11651279
0.19277082 -0.76298213 2.8980002 11783379
0.19943351 -0.75955951 2.8850002 11914451
0.20696092 -0.75955951 2.8850002 11125449
0.21344747 -0.75587356 2.8710001 11519953
0.22093838 -0.75587356 2.8710001 11190988
0.22842927 -0.75587356 2.8710001 10862023
0.2348519 -0.75245094 2.858 10862793
0.24230887 -0.75245094 2.858 11323344
0.25090194 -0.75587356 2.8710001 11520723
0.25839284 -0.75587356 2.8710001 11389137
0.26588371 -0.75587356 2.8710001 11191758
0.27337465 -0.75587356 2.8710001 10994892
0.28086552 -0.75587356 2.8710001 11323857
0.28976256 -0.75955951 2.8850002 11389391
0.29728997 -0.75955951 2.8850002 11389391
0.30481741 -0.75955951 2.8850002 11520207
0.31375226 -0.76298213 2.8980002 11520207
0.32131359 -0.76298213 2.8980002 11323598
0.32887498 -0.76298213 2.8980002 11126219
0.33806157 -0.76666802 2.9120002 11060687
0.34565943 -0.76666802 2.9120002 11389137
0.3532573 -0.76666802 2.9120002 11520207
0.36085519 -0.76666802 2.9120002 11520207
0.36668167 -0.76298213 2.8980002 11520207
0.37424302 -0.76298213 2.8980002 11651279
0.38009161 -0.75955951 2.8850002 11651279
0.38761905 -0.75955951 2.8850002 11651279
0.39322895 -0.75587356 2.8710001 11651277
0.39890534 -0.75245094 2.858 11585484
0.40636232 -0.75245094 2.858 11190726
0.41193694 -0.74902833 2.845 9348522
0.41936001 -0.74902833 2.845 10534595
0.42483294 -0.74560571 2.832 10929353
0.43222204 -0.74560571 2.832 11060939
0.4396112 -0.74560571 2.832 10995146
0.44700035 -0.74560571 2.832 11192012
0.45438945 -0.74560571 2.832 11323080
0.46177861 -0.74560571 2.832 11323080
0.46916777 -0.74560571 2.832 11323080
0.47655687 -0.74560571 2.832 11257287
0.48394603 -0.74560571 2.832 11125701
0.49133518 -0.74560571 2.832 11059654
0.49872428 -0.74560571 2.832 11191240
0.50843668 -0.74902833 2.845 11125447
0.51350254 -0.74560571 2.832 11125447
0.52089167 -0.74560571 2.832 11125447
0.52585584 -0.74218315 2.8190002 11125447
0.53075212 -0.73876047 2.8060002 11125447
0.53807342 -0.73876047 2.8060002 11191240
0.5403412 -0.73191524 2.7800002 11191240
0.54523087 -0.72875589 2.7680001 11322312
0.54746342 -0.72217387 2.743 11322312
0.552194 -0.71901459 2.7310002 11322312
0.55686194 -0.71585518 2.7190001 11388105
0.55897838 -0.70953655 2.6950002 11322312
0.56348974 -0.70637715 2.6830001 11322566
0.56815118 -0.70348114 2.6720002 11387846
0.57253999 -0.70032173 2.6600001 11387846
0.577084 -0.69742572 2.6490002 11387846
0.58399564 -0.69742572 2.6490002 11387846
0.59090734 -0.69742572 2.6490002 11453639
0.60030138 -0.70032173 2.6600001 11453639
0.60724175 -0.70032173 2.6600001 11453639
0.6169529 -0.70348114 2.6720002 11387846
0.6264931 -0.70637715 2.6830001 11387846
0.63632685 -0.70953655 2.6950002 11453639
0.64622319 -0.71269584 2.707 11650248
0.65618217 -0.71585518 2.7190001 11518662
0.66913104 -0.72217387 2.743 11650248
0.6792466 -0.72533321 2.7550001 11518662
0.6896739 -0.72875589 2.7680001 11584455
0.69991732 -0.73191524 2.7800002 11650248
0.70717078 -0.73191524 2.7800002 11584455
0.71776509 -0.73533785 2.7930002 11518662
0.72842717 -0.73876047 2.8060002 11452869
0.73574847 -0.73876047 2.8060002 11518662
0.74651235 -0.74218315 2.8190002 11321281
0.75386763 -0.74218315 2.8190002 10730429
0.76122284 -0.74218315 2.8190002 10862015
0.77212226 -0.74560571 2.832 11256773
0.77951145 -0.74560571 2.832 10532796
0.78690058 -0.74560571 2.832 11256006
0.79428971 -0.74560571 2.832 11518660
0.8016789 -0.74560571 2.832 11584453
0.80906802 -0.74560571 2.832 11518660
0.81645709 -0.74560571 2.832 11518660
0.82384628 -0.74560571 2.832 11584453
0.83123541 -0.74560571 2.832 11584453
0.84247416 -0.74902833 2.845 11650246
0.84989727 -0.74902833 2.845 11584453
0.85732025 -0.74902833 2.845 11189182
0.86474329 -0.74902833 2.845 11385529
0.8721664 -0.74902833 2.845 12042425
0.87958944 -0.74902833 2.845 12108218
0.88701254 -0.74902833 2.845 12239289
0.89443558 -0.74902833 2.845 12304312
0.90597957 -0.75245094 2.858 12370105
0.91343653 -0.75245094 2.858 12304566
0.92089355 -0.75245094 2.858 12238773
0.93257326 -0.75587356 2.8710001 12172980
0.94464827 -0.75955951 2.8850002 12238773
0.9564662 -0.76298213 2.8980002 12173750
0.97334182 -0.77035391 2.9260001 11713199
0.9903636 -0.77772576 2.9540002 12436922
1.0078692 -0.78536081 2.983 12107185
1.0255263 -0.79299587 3.0120001 12172978
1.0436778 -0.80089426 3.0420001 12041392
1.0619857 -0.80879259 3.072 12107185
1.075574 -0.81300509 3.0880001 12303792
1.0945096 -0.82116675 3.1190002 12041390
1.108304 -0.82537925 3.1350002 12041390
1.12788 -0.83380413 3.1670001 12172206
1.1361432 -0.83380413 3.1670001 12237999
1.1444063 -0.83380413 3.1670001 12369839
1.1526695 -0.83380413 3.1670001 12304046
1.1492026 -0.82537925 3.1350002 12369585
1.1573822 -0.82537925 3.1350002 12369585
1.1536647 -0.81695431 3.1030002 12435378
1.1445384 -0.80484349 3.0570002 12303792
1.1355493 -0.79299587 3.0120001 12369585
1.1267049 -0.78141165 2.9680002 12369585
1.1130443 -0.76666802 2.9120002 12369585
1.1048638 -0.75587356 2.8710001 12435378
1.0972444 -0.74560571 2.832 11909038
1.0944921 -0.73876047 2.8060002 10067099
1.0916041 -0.73191524 2.7800002 9673626
1.0889758 -0.72533321 2.7550001 9082770
1.096164 -0.72533321 2.7550001 8885391
1.1033523 -0.72533321 2.7550001 9016977
1.1057032 -0.72217387 2.743 9740187
1.1128601 -0.72217387 2.743 9871773
1.1200171 -0.72217387 2.743 9936536
1.1222429 -0.71901459 2.7310002 9672846
1.1293685 -0.71901459 2.7310002 9409674
1.1414878 -0.72217387 2.743 9672846
1.1486447 -0.72217387 2.743 9672844
1.1558017 -0.72217387 2.743 9475465
1.1629586 -0.72217387 2.743 9147018
1.1701155 -0.72217387 2.743 9278604
1.1772724 -0.72217387 2.743 9871256
1.189611 -0.72533321 2.7550001 9805200
1.1967992 -0.72533321 2.7550001 9344649
1.2096688 -0.72875589 2.7680001 9278856
1.2111757 -0.72533321 2.7550001 11580843
1.218364 -0.72533321 2.7550001 12040363
1.2313352 -0.72875589 2.7680001 11771808
1.2385573 -0.72875589 2.7680001 5908539
1.2511803 -0.73191524 2.7800002 6698055
1.2584337 -0.73191524 2.7800002 14332595
1.2656872 -0.73191524 2.7800002 12302506
1.2729406 -0.73191524 2.7800002 11842984
1.2801942 -0.73191524 2.7800002 11382694
1.2874476 -0.73191524 2.7800002 11382694
1.294701 -0.73191524 2.7800002 10724253
1.2963345 -0.72875589 2.7680001 10592669
1.3035567 -0.72875589 2.7680001 11515568
1.3046228 -0.72533321 2.7550001 12634049
1.3118109 -0.72533321 2.7550001 11976119
1.3189992 -0.72533321 2.7550001 14015964
1.3204108 -0.72217387 2.743 13885148
1.3217601 -0.71901459 2.7310002 10134179
1.3288857 -0.71901459 2.7310002 9345183
1.3360113 -0.71901459 2.7310002 6187119
1.3431369 -0.71901459 2.7310002 7108471
1.3502625 -0.71901459 2.7310002 10003612
1.3633524 -0.72217387 2.743 9542812
-1.5196415 -0.72466183 2.7800002 16580606
-1.5123881 -0.72466183 2.7800002 16580606
-1.4986376 -0.72153378 2.7680001 16580606
-1.4914155 -0.72153378 2.7680001 16580606
-0.11738407 -0.079504266 0.30500001 11064537
-0.11658827 -0.079504266 0.30500001 2050896
-0.11617214 -0.07976494 0.30600002 2373699
-0.11537374 -0.07976494 0.30600002 2503486
-0.11457533 -0.07976494 0.30600002 2371636
-0.11377693 -0.07976494 0.30600002 2305843
-0.11334773 -0.080025606 0.30700001 2239789
-0.11254673 -0.080025606 0.30700001 2304812
-0.11174572 -0.080025606 0.30700001 2304810
-0.11130609 -0.080286279 0.30800003 2107431
-0.11086123 -0.080546945 0.30900002 1778466
-0.11041117 -0.080807611 0.31 2830643
-0.10995588 -0.081068285 0.31100002 3290673
-0.10949539 -0.081328951 0.31200001 3225910
-0.10902967 -0.081589624 0.31300002 3291703
-0.10855873 -0.08185029 0.31400001 3423289
-0.10773946 -0.08185029 0.31400001 3423291
-0.10726069 -0.082110964 0.31500003 3358268
-0.10643882 -0.082110964 0.31500003 3358268
-0.10595222 -0.08237163 0.31600001 3292988
-0.1054604 -0.082632296 0.317 3292988
-0.21895562 -0.20931779 0.80300003 3621440
-0.21686046 -0.20931779 0.80300003 3621440
-0.21449785 -0.20905712 0.80200005 3753026
-0.21267018 -0.20931779 0.80300003 3753024
-0.21057501 -0.20931779 0.80300003 3753024
-0.20847985 -0.20931779 0.80300003 3818817
-0.2063847 -0.20931779 0.80300003 3753024
-0.20428954 -0.20931779 0.80300003 3884610
-0.20219438 -0.20931779 0.80300003 3950916
-0.19985005 -0.20905712 0.80200005 4016709
-0.19800408 -0.20931779 0.80300003 4016709
-0.1000807 -0.15744451 0.60400003 6118753
-0.099320203 -0.15874787 0.60900003 11433344
-0.098212659 -0.15952988 0.61200005 12215678
-0.096931592 -0.16005121 0.61400002 11755127
-0.095640093 -0.16057256 0.61600006 10767983
-0.094490804 -0.16135456 0.61900002 6707553
-0.093325861 -0.16213657 0.62200004 5331806
-0.091997817 -0.1626579 0.62400001 5397599
-0.090659365 -0.16317925 0.62600005 4937563
-0.3765206 -0.80885816 3.1030002 12835817
-0.36842436 -0.80885816 3.1030002 12967403
-0.35858631 -0.80494809 3.0880001 12901358
-0.35052922 -0.80494809 3.0880001 12901356
-0.34413573 -0.80885816 3.1030002 12901610
-0.33777222 -0.81302887 3.1190002 12770794
-0.32963428 -0.81302887 3.1190002 12836587
-0.32314554 -0.81719959 3.1350002 12770794
-0.31657332 -0.8213703 3.1510003 12901610
-0.30991757 -0.82554096 3.1670001 12704231
-0.30327362 -0.82997245 3.1840003 12835815
-0.29802319 -0.83857453 3.2170002 12835815
-0.29116002 -0.8430059 3.2340002 12835815
-0.28569436 -0.85186863 3.2680001 12638436
-0.27716762 -0.85186863 3.2680001 12638436
-0.27012056 -0.85656071 3.2860003 12704229
-0.26297954 -0.86125273 3.3040001 12638436
-0.25435889 -0.86125273 3.3040001 12704227
-0.24573825 -0.86125273 3.3040001 12704481
-0.23711757 -0.86125273 3.3040001 12769760
-0.22725208 -0.85656071 3.2860003 12703967
-0.2186784 -0.85656071 3.2860003 12703965
-0.2089538 -0.85186863 3.2680001 12769499
-0.20042706 -0.85186863 3.2680001 12966108
-0.19090207 -0.84743726 3.2510002 12966108
-0.18146579 -0.8430059 3.2340002 12966108
-0.17302778 -0.8430059 3.2340002 12834520
-0.16285937 -0.8341431 3.2 12834520
-0.15451007 -0.8341431 3.2 12768727
-0.14465348 -0.82554096 3.1670001 12768727
-0.13639028 -0.82554096 3.1670001 12702934
-0.12747976 -0.8213703 3.1510003 12702934
-0.11925831 -0.8213703 3.1510003 12702934
-0.11047304 -0.81719959 3.1350002 12702934
-0.10177124 -0.81302887 3.1190002 12505555
-0.093633287 -0.81302887 3.1190002 12505555
-0.085056745 -0.80885816 3.1030002 12505555
-0.076960519 -0.80885816 3.1030002 12505555
-0.068531409 -0.80494809 3.0880001 12505555
-0.060160991 -0.80077738 3.072 12439762
-0.052145656 -0.80077738 3.072 12505553
-0.043914847 -0.79686731 3.0570002 12439760
-0.035762306 -0.79295725 3.0420001 12505040
-0.027688039 -0.78904724 3.0270002 12439247
-0.019790119 -0.78904724 3.0270002 12373708
-0.011951127 -0.79295725 3.0420001 12373708
-0.0040140669 -0.79295725 3.0420001 12373708
0.0039229924 -0.79295725 3.0420001 12307915
0.011918534 -0.79686731 3.0570002 12176329
0.01989473 -0.79686731 3.0570002 12438731
0.027870927 -0.79686731 3.0570002 12307145
0.035847124 -0.79686731 3.0570002 12438731
0.04382332 -0.79686731 3.0570002 12241352
0.051799521 -0.79686731 3.0570002 12241352
0.060069021 -0.80077738 3.072 12241352
0.067751914 -0.79686731 3.0570002 12307145
0.075728111 -0.79686731 3.0570002 12241352
0.083704308 -0.79686731 3.0570002 12438215
0.091230646 -0.79295725 3.0420001 12438215
0.099167705 -0.79295725 3.0420001 12438215
0.10657664 -0.78904724 3.0270002 12306629
0.11390729 -0.78513718 3.0120001 12240836
0.12115967 -0.78122717 2.9970002 12306629
0.12837681 -0.77757776 2.983 12240836
0.13547526 -0.77366775 2.9680002 12371909
0.14254367 -0.7700184 2.9540002 12371909
0.15025114 -0.7700184 2.9540002 12371909
0.15720995 -0.76636899 2.9400001 12306114
0.16488089 -0.76636899 2.9400001 12306629
0.17173013 -0.76271957 2.9260001 11584455
0.17850633 -0.75907022 2.9120002 11717072
0.18520947 -0.75542086 2.8980002 11717072
0.19277082 -0.75542086 2.8980002 11914197
0.19943351 -0.75203216 2.8850002 11848404
0.20696092 -0.75203216 2.8850002 10731209
0.21344747 -0.74838275 2.8710001 11323344
0.22093838 -0.74838275 2.8710001 11389137
0.22842927 -0.74838275 2.8710001 11716818
0.23592016 -0.74838275 2.8710001 11651025
0.24341105 -0.74838275 2.8710001 11191758
0.25090194 -0.74838275 2.8710001 11125965
0.25839284 -0.74838275 2.8710001 11389137
0.26588371 -0.74838275 2.8710001 11191758
0.27337465 -0.74838275 2.8710001 11191758
0.28086552 -0.74838275 2.8710001 11323344
0.28976256 -0.75203216 2.8850002 11389391
0.29728997 -0.75203216 2.8850002 11389391
0.30481741 -0.75203216 2.8850002 11520207
0.31375226 -0.75542086 2.8980002 11454414
0.32131359 -0.75542086 2.8980002 11192012
0.33046371 -0.75907022 2.9120002 11060426
0.33806157 -0.75907022 2.9120002 10469318
0.34565943 -0.75907022 2.9120002 11324111
0.3532573 -0.75907022 2.9120002 11520207
0.36085519 -0.75907022 2.9120002 11651279
0.36668167 -0.75542086 2.8980002 11651279
0.37256423 -0.75203216 2.8850002 11651279
0.38009161 -0.75203216 2.8850002 11585486
0.38573802 -0.74838275 2.8710001 11585486
0.39144838 -0.74499404 2.858 11651277
0.39709085 -0.74160534 2.845 11585484
0.40451393 -0.74160534 2.845 11453898
0.41005462 -0.73821664 2.832 11322312
0.41744378 -0.73821664 2.832 11191240
0.42483294 -0.73821664 2.832 11322826
0.43023801 -0.734828 2.8190002 11322826
0.43759325 -0.734828 2.8190002 11257033
0.44494846 -0.734828 2.8190002 11322826
0.45438945 -0.73821664 2.832 11322826
0.46177861 -0.73821664 2.832 11191240
0.46916777 -0.73821664 2.832 11191240
0.47655687 -0.73821664 2.832 11257033
0.48394603 -0.73821664 2.832 11322312
0.49133518 -0.73821664 2.832 11322312
0.50101364 -0.74160534 2.845 11257033
0.50611341 -0.73821664 2.832 11191240
0.51350254 -0.73821664 2.832 11191240
0.52089167 -0.73821664 2.832 11191240
0.52828085 -0.73821664 2.832 11125447
0.53321105 -0.734828 2.8190002 11191240
0.53807342 -0.73143923 2.8060002 11191240
0.54286796 -0.72805053 2.7930002 11191240
0.54759461 -0.72466183 2.7800002 11191240
0.54985845 -0.71814507 2.7550001 11322312
0.55462033 -0.71501702 2.743 11322312
0.55686194 -0.70876098 2.7190001 11322312
0.56146729 -0.70563293 2.707 11322312
0.56348974 -0.69937682 2.6830001 11256773
0.56815118 -0.69650948 2.6720002 11256773
0.57253999 -0.69338143 2.6600001 11322566
0.57948029 -0.69338143 2.6600001 11322566
0.58399564 -0.69051409 2.6490002 11322566
0.59090734 -0.69051409 2.6490002 11387846
0.60030138 -0.69338143 2.6600001 11453639
0.60724175 -0.69338143 2.6600001 11453639
0.6169529 -0.69650948 2.6720002 11387846
0.6264931 -0.69937682 2.6830001 11322053
0.63632685 -0.70250493 2.6950002 11453639
0.64908791 -0.70876098 2.7190001 11453639
0.65618217 -0.70876098 2.7190001 11322053
0.66913104 -0.71501702 2.743 11453639
0.6792466 -0.71814507 2.7550001 11518662
0.6896739 -0.72153378 2.7680001 11518662
0.69991732 -0.72466183 2.7800002 11518662
0.71047771 -0.72805053 2.7930002 11518662
0.71776509 -0.72805053 2.7930002 11321283
0.72842717 -0.73143923 2.8060002 11452869
0.73574847 -0.73143923 2.8060002 11452867
0.74651235 -0.734828 2.8190002 11058881
0.75386763 -0.734828 2.8190002 9809073
0.76122284 -0.734828 2.8190002 10664382
0.77212226 -0.73821664 2.832 11125187
0.77951145 -0.73821664 2.832 10861502
0.78690058 -0.73821664 2.832 10334904
0.79428971 -0.73821664 2.832 11387076
0.8016789 -0.73821664 2.832 11518662
0.80906802 -0.73821664 2.832 11518660
0.81645709 -0.73821664 2.832 11518660
0.82384628 -0.73821664 2.832 11518660
0.83123541 -0.73821664 2.832 11584453
0.84247416 -0.74160534 2.845 11584453
0.84989727 -0.74160534 2.845 11649731
0.85732025 -0.74160534 2.845 11385789
0.86474329 -0.74160534 2.845 11385529
0.8721664 -0.74160534 2.845 12173496
0.87557024 -0.73821664 2.832 12107703
0.88295937 -0.73821664 2.832 12238773
0.88626152 -0.734828 2.8190002 12369589
0.89773762 -0.73821664 2.832 12369589
0.90512675 -0.73821664 2.832 12435382
0.91251588 -0.73821664 2.832 12764347
0.92412776 -0.74160534 2.845 7567216
0.93155086 -0.74160534 2.845 4737096
0.94755501 -0.74838275 2.8710001 3750205
0.96402758 -0.75542086 2.8980002 3881791
0.98097622 -0.76271957 2.9260001 4144704
0.99807107 -0.7700184 2.9540002 4210752
1.0156524 -0.77757776 2.983 4145731
1.0333852 -0.78513718 3.0120001 3884612
1.0516148 -0.79295725 3.0420001 3884612
1.0700011 -0.80077738 3.072 4146499
1.0836312 -0.80494809 3.0880001 4212294
1.1026475 -0.81302887 3.1190002 5330003
1.1164837 -0.81719959 3.1350002 5986136
1.1246635 -0.81719959 3.1350002 6183515
1.1386248 -0.8213703 3.1510003 7302501
1.1410228 -0.81719959 3.1350002 7698029
1.1492026 -0.81719959 3.1350002 8421757
1.1514753 -0.81302887 3.1190002 9079685
1.1536647 -0.80885816 3.1030002 9474443
1.1501544 -0.80077738 3.072 10001811
1.1412045 -0.78904724 3.0270002 10067350
1.1323992 -0.77757776 2.983 10660257
1.1237465 -0.76636899 2.9400001 11383460
1.1152544 -0.75542086 2.8980002 11383460
1.1073179 -0.74499404 2.858 11909804
1.1046335 -0.73821664 2.832 11251106
1.106918 -0.734828 2.8190002 10264731
1.1091347 -0.73143923 2.8060002 9149077
1.1112835 -0.72805053 2.7930002 8820365
1.1133646 -0.72466183 2.7800002 8820365
1.1157807 -0.72153378 2.7680001 9082510
1.1230029 -0.72153378 2.7680001 8885644
1.1302251 -0.72153378 2.7680001 9541776
1.1374472 -0.72153378 2.7680001 9343881
1.1392934 -0.71814507 2.7550001 9278088
1.1464816 -0.71814507 2.7550001 9278088
1.1536698 -0.71814507 2.7550001 9409672
1.160858 -0.71814507 2.7550001 9409672
1.1680464 -0.71814507 2.7550001 9344651
1.1752346 -0.71814507 2.7550001 9410444
1.1824228 -0.71814507 2.7550001 9739670
1.189611 -0.71814507 2.7550001 9608336
1.2024466 -0.72153378 2.7680001 9345162
1.2096688 -0.72153378 2.7680001 9213576
1.2168908 -0.72153378 2.7680001 11712429
1.2294199 -0.72466183 2.7800002 11974827
1.2366734 -0.72466183 2.7800002 12759473
1.2439268 -0.72466183 2.7800002 5777723
1.2511803 -0.72466183 2.7800002 6501446
1.2643185 -0.72805053 2.7930002 13937067
1.2716058 -0.72805053 2.7930002 12434090
1.2788932 -0.72805053 2.7930002 11908777
1.2861807 -0.72805053 2.7930002 11053475
1.293468 -0.72805053 2.7930002 11053475
1.3007554 -0.72805053 2.7930002 10592667
1.3080428 -0.72805053 2.7930002 10526876
1.309208 -0.72466183 2.7800002 10660008
1.3164614 -0.72466183 2.7800002 12436930
1.3237149 -0.72466183 2.7800002 11976379
1.3252231 -0.72153378 2.7680001 12832460
1.3261874 -0.71814507 2.7550001 12437700
1.3333756 -0.71814507 2.7550001 11581112
1.3347247 -0.71501702 2.743 5923177
1.3418816 -0.71501702 2.743 6515314
1.3490385 -0.71501702 2.743 10398632
1.3621285 -0.71814507 2.7550001 10267297
1.3693168 -0.71814507 2.7550001 9938597
-1.5196415 -0.71740836 2.7800002 16580606
-1.5058599 -0.7143116 2.7680001 16580606
-1.4915991 -0.71095681 2.7550001 16580606
-1.4779452 -0.70786005 2.743 16580606
-0.11817987 -0.07870847 0.30500001 14090239
-0.11776894 -0.078966536 0.30600002 12775407
-0.11697054 -0.078966536 0.30600002 1785159
-0.11617214 -0.078966536 0.30600002 2307390
-0.11537374 -0.078966536 0.30600002 2372152
-0.11457533 -0.078966536 0.30600002 2371636
-0.11377693 -0.078966536 0.30600002 2305843
-0.11334773 -0.079224586 0.30700001 2173996
-0.11254673 -0.079224586 0.30700001 2173994
-0.11174572 -0.079224586 0.30700001 2239017
-0.11130609 -0.079482652 0.30800003 1909539
-0.11086123 -0.079740711 0.30900002 2106918
-0.11041117 -0.079998769 0.31 3421240
-0.10995588 -0.080256835 0.31100002 3356213
-0.10902967 -0.080772959 0.31300002 3291956
-0.10855873 -0.081031017 0.31400001 3489082
-0.10808258 -0.081289075 0.31500003 3489082
-0.10726069 -0.081289075 0.31500003 3424059
-0.10643882 -0.081289075 0.31500003 3424059
-0.10595222 -0.081547134 0.31600001 3292986
-0.21713053 -0.20748068 0.80400002 3621440
-0.21476531 -0.20722263 0.80300003 3753026
-0.21267018 -0.20722263 0.80300003 3753024
-0.21057501 -0.20722263 0.80300003 3818817
-0.20873947 -0.20748068 0.80400002 3818817
-0.2066417 -0.20748068 0.80400002 3818817
-0.20479836 -0.20773876 0.80500007 4016198
-0.20244618 -0.20748068 0.80400002 4016711
-0.20034842 -0.20748068 0.80400002 3885639
-0.10024639 -0.15612663 0.60500002 11238791
-0.099483289 -0.15741694 0.61000001 12280699
-0.098373137 -0.15819113 0.61300004 11686521
-0.097405203 -0.15922336 0.61700004 11883900
-0.096105866 -0.15973948 0.61900002 9720178
-0.095101409 -0.16077173 0.62300003 6707813
-0.093926027 -0.16154592 0.62600005 5528415
-0.092440121 -0.16180398 0.62700003 5594208
-0.091238655 -0.16257815 0.63000005 9477028
-0.3765206 -0.80076194 3.1030002 12901356
-0.36842436 -0.80076194 3.1030002 13032942
-0.35858631 -0.79689097 3.0880001 12836335
-0.35052922 -0.79689097 3.0880001 12902128
-0.34413573 -0.80076194 3.1030002 12836333
-0.33603951 -0.80076194 3.1030002 12770540
-0.32963428 -0.80489087 3.1190002 12836333
-0.32149631 -0.80489087 3.1190002 12836333
-0.31496584 -0.80901986 3.1350002 12836587
-0.30835184 -0.81314886 3.1510003 12705001
-0.30165437 -0.81727779 3.1670001 12770792
-0.29496607 -0.82166481 3.1840003 12704999
-0.28962949 -0.83018082 3.2170002 12704999
-0.28420818 -0.83895487 3.2510002 12704229
-0.27716762 -0.84334189 3.2680001 12835815
-0.26864091 -0.84334189 3.2680001 12835301
-0.26154685 -0.847987 3.2860003 12835301
-0.25297317 -0.847987 3.2860003 12769506
-0.24439949 -0.847987 3.2860003 12769760
-0.23582578 -0.847987 3.2860003 12769760
-0.22725208 -0.847987 3.2860003 12638174
-0.21748053 -0.84334189 3.2680001 12703452
-0.2089538 -0.84334189 3.2680001 12703452
-0.19938445 -0.83895487 3.2510002 12965854
-0.19090207 -0.83895487 3.2510002 12900315
-0.18146579 -0.83456784 3.2340002 12834522
-0.17211823 -0.83018082 3.2170002 12834522
-0.16285937 -0.82579374 3.2 12768729
-0.15373753 -0.82166481 3.1840003 12768729
-0.14542997 -0.82166481 3.1840003 12768727
-0.13639028 -0.81727779 3.1670001 12702934
-0.12747976 -0.81314886 3.1510003 12702934
-0.11925831 -0.81314886 3.1510003 12571348
-0.11047304 -0.80901986 3.1350002 12702934
-0.10229332 -0.80901986 3.1350002 12505555
-0.094113611 -0.80901986 3.1350002 12439762
-0.085495323 -0.80489087 3.1190002 12505555
-0.077357352 -0.80489087 3.1190002 12505555
-0.069219388 -0.80489087 3.1190002 12505555
-0.060768086 -0.80076194 3.1030002 12439762
-0.052671868 -0.80076194 3.1030002 12505553
-0.044360168 -0.79689097 3.0880001 12439760
-0.036114991 -0.79276198 3.072 12505040
-0.028099654 -0.79276198 3.072 12439501
-0.020084321 -0.79276198 3.072 12373708
-0.012068988 -0.79276198 3.072 12373708
-0.0040747663 -0.79689097 3.0880001 12373708
0.0039823144 -0.79689097 3.0880001 12307915
0.012039395 -0.79689097 3.0880001 12307915
0.020096475 -0.79689097 3.0880001 12307145
0.028153555 -0.79689097 3.0880001 12307145
0.036210638 -0.79689097 3.0880001 12307145
0.044267718 -0.79689097 3.0880001 12241352
0.052324802 -0.79689097 3.0880001 12241352
0.060381878 -0.79689097 3.0880001 12241352
0.068438962 -0.79689097 3.0880001 12307145
0.076099686 -0.79276198 3.072 12241352
0.084115021 -0.79276198 3.072 12438215
0.091680504 -0.78889114 3.0570002 12438215
0.099167705 -0.78502017 3.0420001 12372422
0.10657664 -0.78114933 3.0270002 12372422
0.11390729 -0.77727836 3.0120001 12306629
0.12176607 -0.77727836 3.0120001 12240836
0.12837681 -0.76979464 2.983 12240836
0.13547526 -0.76592374 2.9680002 12306116
0.14254367 -0.76231092 2.9540002 12371909
0.15025114 -0.76231092 2.9540002 12371909
0.15720995 -0.75869799 2.9400001 12371907
0.16409574 -0.75508517 2.9260001 12306627
0.17173013 -0.75508517 2.9260001 11584453
0.17850633 -0.75147235 2.9120002 11782865
0.18520947 -0.74785954 2.8980002 11717072
0.19277082 -0.74785954 2.8980002 11848404
0.19943351 -0.74450475 2.8850002 11848404
0.20696092 -0.74450475 2.8850002 11520725
0.21344747 -0.74089181 2.8710001 11389137
0.22093838 -0.74089181 2.8710001 11454930
0.22842927 -0.74089181 2.8710001 11782611
0.2348519 -0.73753703 2.858 11716818
0.24230887 -0.73753703 2.858 11519953
0.24976586 -0.73753703 2.858 11389137
0.25839284 -0.74089181 2.8710001 11389137
0.26588371 -0.74089181 2.8710001 11125965
0.27337465 -0.74089181 2.8710001 11323344
0.28086552 -0.74089181 2.8710001 11323344
0.28835642 -0.74089181 2.8710001 11520207
0.29728997 -0.74450475 2.8850002 11520207
0.30481741 -0.74450475 2.8850002 11520207
0.31375226 -0.74785954 2.8980002 11520207
0.32131359 -0.74785954 2.8980002 11454414
0.32887498 -0.74785954 2.8980002 11257035
0.3364363 -0.74785954 2.8980002 10074564
0.34399763 -0.74785954 2.8980002 11389137
0.35155895 -0.74785954 2.8980002 11520205
0.35912031 -0.74785954 2.8980002 11651277
0.36503679 -0.74450475 2.8850002 11651277
0.37256423 -0.74450475 2.8850002 11651279
0.37824711 -0.74089181 2.8710001 11585486
0.38399139 -0.73753703 2.858 11585486
0.38966781 -0.73418224 2.845 11651277
0.39709085 -0.73418224 2.845 11585484
0.40266553 -0.73082745 2.832 11453898
0.41005462 -0.73082745 2.832 11453898
0.41552758 -0.72747272 2.8190002 11191240
0.42288283 -0.72747272 2.8190002 11322826
0.43023801 -0.72747272 2.8190002 11454412
0.43759325 -0.72747272 2.8190002 11257033
0.44494846 -0.72747272 2.8190002 11191240
0.45230368 -0.72747272 2.8190002 11191240
0.45965889 -0.72747272 2.8190002 11191240
0.46916777 -0.73082745 2.832 11191240
0.47655687 -0.73082745 2.832 11322826
0.48394603 -0.73082745 2.832 11322312
0.49133518 -0.73082745 2.832 11322566
0.49872428 -0.73082745 2.832 11388359
0.50611341 -0.73082745 2.832 11388359
0.51350254 -0.73082745 2.832 11191494
0.52089167 -0.73082745 2.832 11191240
0.52585584 -0.72747272 2.8190002 11191240
0.53321105 -0.72747272 2.8190002 11191240
0.53807342 -0.72411793 2.8060002 11191240
0.54286796 -0.72076315 2.7930002 11257033
0.54759461 -0.71740836 2.7800002 11322312
0.54985845 -0.71095681 2.7550001 11322312
0.55462033 -0.70786005 2.743 11322312
0.55686194 -0.70166665 2.7190001 11256519
0.56146729 -0.69856989 2.707 11322312
0.56348974 -0.69237643 2.6830001 11322566
0.56815118 -0.68953782 2.6720002 11388359
0.57512289 -0.68953782 2.6720002 11322566
0.57948029 -0.68644106 2.6600001 11322566
0.58399564 -0.68360245 2.6490002 11322566
0.59336108 -0.68644106 2.6600001 11387846
0.60030138 -0.68644106 2.6600001 11453639
0.60998124 -0.68953782 2.6720002 11453639
0.61949271 -0.69237643 2.6830001 11387846
0.62929517 -0.69547319 2.6950002 11387846
0.63916016 -0.69856989 2.707 11453639
0.64908791 -0.70166665 2.7190001 11453639
0.65907818 -0.70476341 2.7310002 11387846
0.66913104 -0.70786005 2.743 11453639
0.68245173 -0.7143116 2.7680001 11387846
0.6896739 -0.7143116 2.7680001 11387846
0.69991732 -0.71740836 2.7800002 11518662
0.71047771 -0.72076315 2.7930002 11518662
0.71776509 -0.72076315 2.7930002 11123904
0.72842717 -0.72411793 2.8060002 11322053
0.73574847 -0.72411793 2.8060002 11322053
0.74651235 -0.72747272 2.8190002 11256260
0.75386763 -0.72747272 2.8190002 11190467
0.76122284 -0.72747272 2.8190002 11256260
0.76857799 -0.72747272 2.8190002 11256260
0.77951145 -0.73082745 2.832 11387076
0.78690058 -0.73082745 2.832 11387076
0.79428971 -0.73082745 2.832 11518662
0.8016789 -0.73082745 2.832 11518662
0.80906802 -0.73082745 2.832 11518660
0.81645709 -0.73082745 2.832 11518660
0.82384628 -0.73082745 2.832 11584453
0.83123541 -0.73082745 2.832 11584453
0.84247416 -0.73418224 2.845 11518660
0.84989727 -0.73418224 2.845 11649731
0.85732025 -0.73418224 2.845 11517375
0.86474329 -0.73418224 2.845 11254457
0.86818105 -0.73082745 2.832 12107703
0.8715511 -0.72747272 2.8190002 12107703
0.87890631 -0.72747272 2.8190002 12238773
0.88217449 -0.72411793 2.8060002 12369589
0.88949573 -0.72411793 2.8060002 12238773
0.89681703 -0.72411793 2.8060002 11908786
0.90413833 -0.72411793 2.8060002 8224378
0.91145968 -0.72411793 2.8060002 5462361
0.91878098 -0.72411793 2.8060002 4276547
0.93468326 -0.73082745 2.832 3947584
0.95072138 -0.73753703 2.858 3618617
0.97158891 -0.74785954 2.8980002 3881789
0.98388046 -0.75147235 2.9120002 3750201
1.0057786 -0.76231092 2.9540002 4079166
1.0234355 -0.76979464 2.983 3686463
1.0464294 -0.78114933 3.0270002 3620670
1.0595518 -0.78502017 3.0420001 3751743
1.0727527 -0.78889114 3.0570002 3620157
1.0916882 -0.79689097 3.0880001 3356987
1.1050874 -0.80076194 3.1030002 4407878
1.1131836 -0.80076194 3.1030002 3947327
1.1270614 -0.80489087 3.1190002 4407357
1.1410228 -0.80901986 3.1350002 4342334
1.1433374 -0.80489087 3.1190002 3947325
1.1455685 -0.80076194 3.1030002 4013118
1.1480877 -0.79689097 3.0880001 3947325
1.1501544 -0.79276198 3.072 4209725
1.1412045 -0.78114933 3.0270002 3815737
1.1377139 -0.77340752 2.9970002 3948350
1.1344489 -0.76592374 2.9680002 3948601
1.1260298 -0.75508517 2.9260001 4145980
1.1228158 -0.74785954 2.8980002 4737090
1.1198455 -0.74089181 2.8710001 4868678
1.1222318 -0.73753703 2.858 4343110
1.1245502 -0.73418224 2.845 4542544
1.1319733 -0.73418224 2.845 4871509
1.13419 -0.73082745 2.832 5661538
1.141579 -0.73082745 2.832 6120804
1.143694 -0.72747272 2.8190002 6121574
1.1510494 -0.72747272 2.8190002 6385257
1.1530625 -0.72411793 2.8060002 6385257
1.1550078 -0.72076315 2.7930002 6911339
1.1622952 -0.72076315 2.7930002 8687234
1.1641387 -0.71740836 2.7800002 9081992
1.1663358 -0.7143116 2.7680001 9870995
1.1786457 -0.71740836 2.7800002 9607823
1.1858991 -0.71740836 2.7800002 8817537
1.1931527 -0.71740836 2.7800002 9738639
1.2004061 -0.71740836 2.7800002 9739409
1.2076595 -0.71740836 2.7800002 10134678
1.214913 -0.71740836 2.7800002 9871506
1.2278817 -0.72076315 2.7930002 11713197
1.2351691 -0.72076315 2.7930002 11713197
1.2424564 -0.72076315 2.7930002 12630451
1.2555606 -0.72411793 2.8060002 5713724
1.262882 -0.72411793 2.8060002 5976896
1.2702032 -0.72411793 2.8060002 12425627
1.2775246 -0.72411793 2.8060002 12368810
1.2907985 -0.72747272 2.8190002 12237742
1.2981538 -0.72747272 2.8190002 10001041
1.3115292 -0.73082745 2.832 10132627
1.3128641 -0.72747272 2.8190002 10330004
1.3202194 -0.72747272 2.8190002 9409674
1.3275746 -0.72747272 2.8190002 9474962
1.3287737 -0.72411793 2.8060002 8621710
1.3299049 -0.72076315 2.7930002 8950675
1.3371923 -0.72076315 2.7930002 9280665
1.3444797 -0.72076315 2.7930002 10135198
1.3454753 -0.71740836 2.7800002 9805463
1.3468896 -0.7143116 2.7680001 6121576
1.3541118 -0.7143116 2.7680001 8424331
1.3613338 -0.7143116 2.7680001 12175808
1.368556 -0.7143116 2.7680001 8029822
1.3817426 -0.71740836 2.7800002 7569031
-1.5196415 -0.71015489 2.7800002 16580606
-1.4786053 -0.6976378 2.7310002 16580606
-1.465014 -0.69457233 2.7190001 16580606
-0.11817987 -0.077912673 0.30500001 14417919
-0.11738407 -0.077912673 0.30500001 2046535
-0.11697054 -0.078168131 0.30600002 2309707
-0.11617214 -0.078168131 0.30600002 2372670
-0.11537374 -0.078168131 0.30600002 2503224
-0.11457533 -0.078168131 0.30600002 2371123
-0.11377693 -0.078168131 0.30600002 2239537
-0.11334773 -0.078423575 0.30700001 2173996
-0.11254673 -0.078423575 0.30700001 2173994
-0.11210971 -0.078679033 0.30800003 2304297
-0.11130609 -0.078679033 0.30800003 1909539
-0.11122001 -0.079189926 0.31 2435883
-0.11041117 -0.079189926 0.31 3487033
-0.11030944 -0.079700835 0.31200001 3422006
-0.10984634 -0.079956286 0.31300002 3422006
-0.10937801 -0.080211736 0.31400001 3291703
-0.10855873 -0.080211736 0.31400001 3489082
-0.10808258 -0.080467194 0.31500003 3489082
-0.10726069 -0.080467194 0.31500003 3424059
-0.10677671 -0.080722637 0.31600001 3424059
-0.099754386 -0.084554411 0.33100003 3753026
-0.098890752 -0.084554411 0.33100003 3621440
-0.098027118 -0.084554411 0.33100003 3621440
-0.21503276 -0.20538291 0.80400002 3621440
-0.21319987 -0.20563838 0.80500007 3818817
-0.21109949 -0.20563838 0.80500007 3753024
-0.20925874 -0.20589383 0.80600005 3884610
-0.20530717 -0.20614928 0.80700004 3950918
-0.10024639 -0.15454809 0.60500002 11627389
-0.099646375 -0.1560808 0.611 11949945
-0.098854572 -0.15735807 0.61600006 10768501
-0.097720936 -0.1581244 0.61900002 10636915
-0.096416391 -0.15863532 0.62100005 8082026
-0.095406704 -0.15965712 0.625 6249830
-0.094226107 -0.16042347 0.62800002 5463394
-0.092882425 -0.16093439 0.63000005 5529187
-0.091673121 -0.16170073 0.63300002 12504022
-0.37470049 -0.78883386 3.0880001 12770540
-0.36664337 -0.78883386 3.0880001 12902126
-0.35858631 -0.78883386 3.0880001 12836335
-0.35052922 -0.78883386 3.0880001 12902639
-0.34247217 -0.78883386 3.0880001 12902639
-0.33603951 -0.79266566 3.1030002 12771055
-0.3279433 -0.79266566 3.1030002 12836848
-0.32149631 -0.79675293 3.1190002 12771053
-0.31335834 -0.79675293 3.1190002 12771053
-0.30678609 -0.80084014 3.1350002 12771053
-0.3001304 -0.80492735 3.1510003 12705001
-0.29496607 -0.81335723 3.1840003 12705001
-0.28809896 -0.81744444 3.2 12704999
-0.28272203 -0.82612979 3.2340002 12835815
-0.27428401 -0.82612979 3.2340002 12966885
-0.26724344 -0.83047247 3.2510002 12967139
-0.26011416 -0.83481514 3.2680001 12835553
-0.25297317 -0.83941329 3.2860003 12835553
-0.24439949 -0.83941329 3.2860003 12769760
-0.23582578 -0.83941329 3.2860003 12769247
-0.22725208 -0.83941329 3.2860003 12769247
-0.21748053 -0.83481514 3.2680001 12835038
-0.20786683 -0.83047247 3.2510002 12703452
-0.19938445 -0.83047247 3.2510002 12703452
-0.19090207 -0.83047247 3.2510002 12572379
-0.18146579 -0.82612979 3.2340002 12572379
-0.17211823 -0.82178718 3.2170002 12637913
-0.16285937 -0.81744444 3.2 12637913
-0.15373753 -0.81335723 3.1840003 12637659
-0.14542997 -0.81335723 3.1840003 12637913
-0.13639028 -0.80901456 3.1670001 12702936
-0.12747976 -0.80492735 3.1510003 12571350
-0.11925831 -0.80492735 3.1510003 12702934
-0.11103685 -0.80492735 3.1510003 12571348
-0.10281539 -0.80492735 3.1510003 12505555
-0.094593942 -0.80492735 3.1510003 12505555
-0.085933901 -0.80084014 3.1350002 12505555
-0.077754185 -0.80084014 3.1350002 12505555
-0.069574475 -0.80084014 3.1350002 12439762
-0.061394766 -0.80084014 3.1350002 12702934
-0.053215053 -0.80084014 3.1350002 12373969
-0.045035344 -0.80084014 3.1350002 12373969
-0.036667533 -0.79675293 3.1190002 12505042
-0.028529566 -0.79675293 3.1190002 12439247
-0.020391602 -0.79675293 3.1190002 12439247
-0.012253637 -0.79675293 3.1190002 12439247
-0.0041156723 -0.79675293 3.1190002 12373708
0.0040222923 -0.79675293 3.1190002 12438731
0.012160257 -0.79675293 3.1190002 12438731
0.020298222 -0.79675293 3.1190002 12307145
0.028436186 -0.79675293 3.1190002 12307145
0.036574151 -0.79675293 3.1190002 12372422
0.044712115 -0.79675293 3.1190002 12372422
0.052850083 -0.79675293 3.1190002 12241350
0.060988046 -0.79675293 3.1190002 12241350
0.068771407 -0.79266566 3.1030002 12241350
0.076867625 -0.79266566 3.1030002 12241350
0.084553123 -0.78883386 3.0880001 12372422
0.092130356 -0.78474665 3.072 12306629
0.099656701 -0.7809149 3.0570002 12306629
0.10710476 -0.7770831 3.0420001 12372422
0.11447456 -0.77325135 3.0270002 12240836
0.12176607 -0.76941961 3.0120001 12109764
0.12897933 -0.76558787 2.9970002 12240836
0.13547526 -0.75817972 2.9680002 12240323
0.14254367 -0.75460345 2.9540002 12306116
0.15025114 -0.75460345 2.9540002 12306116
0.15720995 -0.75102705 2.9400001 12306116
0.16488089 -0.75102705 2.9400001 12240836
0.17173013 -0.74745077 2.9260001 11649735
0.17850633 -0.74387449 2.9120002 11848656
0.18520947 -0.74029815 2.8980002 11782863
0.19277082 -0.74029815 2.8980002 11717586
0.19943351 -0.73697728 2.8850002 11783379
0.20696092 -0.73697728 2.8850002 11389652
0.21344747 -0.73340094 2.8710001 11389650
0.22093838 -0.73340094 2.8710001 11455443
0.22842927 -0.73340094 2.8710001 11782865
0.2348519 -0.73008007 2.858 11717072
0.24230887 -0.73008007 2.858 11717072
0.24976586 -0.73008007 2.858 11520207
0.25722283 -0.73008007 2.858 11454414
0.26467979 -0.73008007 2.858 11454414
0.27213678 -0.73008007 2.858 11389391
0.28086552 -0.73340094 2.8710001 11323598
0.28835642 -0.73340094 2.8710001 11389391
0.2958473 -0.73340094 2.8710001 11323598
0.30481741 -0.73697728 2.8850002 11191758
0.31234482 -0.73697728 2.8850002 11125965
0.31987223 -0.73697728 2.8850002 10665414
0.32887498 -0.74029815 2.8980002 10007484
0.3364363 -0.74029815 2.8980002 9087928
0.34399763 -0.74029815 2.8980002 10797517
0.35155895 -0.74029815 2.8980002 11651279
0.35750937 -0.73697728 2.8850002 11651279
0.36503679 -0.73697728 2.8850002 11651279
0.37075627 -0.73340094 2.8710001 11717072
0.3765344 -0.73008007 2.858 11585486
0.38224477 -0.7267592 2.845 11585486
0.38788727 -0.72343832 2.832 11585486
0.39527637 -0.72343832 2.832 11453900
0.40081716 -0.72011751 2.8190002 11585486
0.40817234 -0.72011751 2.8190002 11257033
0.41552758 -0.72011751 2.8190002 11060424
0.42093268 -0.71679664 2.8060002 11060424
0.42825395 -0.71679664 2.8060002 11060424
0.43557525 -0.71679664 2.8060002 11060424
0.44289657 -0.71679664 2.8060002 11322826
0.45021784 -0.71679664 2.8060002 11322826
0.45965889 -0.72011751 2.8190002 11257033
0.46701413 -0.72011751 2.8190002 11257033
0.47436932 -0.72011751 2.8190002 11322826
0.48394603 -0.72343832 2.832 11388359
0.49133518 -0.72343832 2.832 11388359
0.49872428 -0.72343832 2.832 11388359
0.50611341 -0.72343832 2.832 11454152
0.51350254 -0.72343832 2.832 11191240
0.52089167 -0.72343832 2.832 11257033
0.52828085 -0.72343832 2.832 11322566
0.53321105 -0.72011751 2.8190002 11256773
0.53807342 -0.71679664 2.8060002 11256773
0.54286796 -0.71347576 2.7930002 11322566
0.54759461 -0.71015489 2.7800002 11322566
0.54985845 -0.70376861 2.7550001 11388359
0.55462033 -0.70070314 2.743 11322566
0.55686194 -0.69457233 2.7190001 11322566
0.56146729 -0.69150692 2.707 11322566
0.56601 -0.68844151 2.6950002 11322566
0.56815118 -0.68256611 2.6720002 11388359
0.57512289 -0.68256611 2.6720002 11322566
0.58209449 -0.68256611 2.6720002 11322566
0.58642066 -0.6795007 2.6600001 11322566
0.59603786 -0.68256611 2.6720002 11453639
0.60300952 -0.68256611 2.6720002 11387846
0.61249232 -0.68537611 2.6830001 11387846
0.61949271 -0.68537611 2.6830001 11387846
0.63209718 -0.69150692 2.707 11387846
0.63916016 -0.69150692 2.707 11584455
0.64908791 -0.69457233 2.7190001 11584455
0.66197413 -0.70070314 2.743 11518662
0.67205834 -0.70376861 2.7550001 11518662
0.68245173 -0.70708948 2.7680001 11452869
0.69266385 -0.71015489 2.7800002 11518662
0.70319033 -0.71347576 2.7930002 11518662
0.71047771 -0.71347576 2.7930002 11322053
0.72110593 -0.71679664 2.8060002 11190467
0.72842717 -0.71679664 2.8060002 11387846
0.73915714 -0.72011751 2.8190002 11322053
0.74651235 -0.72011751 2.8190002 11387846
0.75386763 -0.72011751 2.8190002 11518662
0.76122284 -0.72011751 2.8190002 11584455
0.76857799 -0.72011751 2.8190002 11584455
0.77593321 -0.72011751 2.8190002 11649735
0.78328848 -0.72011751 2.8190002 11583942
0.79428971 -0.72343832 2.832 11583940
0.8016789 -0.72343832 2.832 11583940
0.80906802 -0.72343832 2.832 11583940
0.81645709 -0.72343832 2.832 11583940
0.82384628 -0.72343832 2.832 11584453
0.83123541 -0.72343832 2.832 11584453
0.83862454 -0.72343832 2.832 11650246
0.84601372 -0.72343832 2.832 11584451
0.85340279 -0.72343832 2.832 11386559
0.86474329 -0.7267592 2.845 11320250
0.86818105 -0.72343832 2.832 11845814
0.8675319 -0.71679664 2.8060002 11911607
0.87080002 -0.71347576 2.7930002 12107957
0.87400037 -0.71015489 2.7800002 12238773
0.88125378 -0.71015489 2.7800002 12632256
0.88467193 -0.70708948 2.7680001 5660775
0.8918941 -0.70708948 2.7680001 5397603
0.89911628 -0.70708948 2.7680001 4345940
0.90633845 -0.70708948 2.7680001 3554112
0.92181164 -0.71347576 2.7930002 3028022
0.93774801 -0.72011751 2.8190002 2633264
0.95381999 -0.7267592 2.845 2699057
0.97002769 -0.73340094 2.8710001 2699055
0.98671162 -0.74029815 2.8980002 2699053
1.0086827 -0.75102705 2.9400001 2633773
1.0260332 -0.75817972 2.9680002 2502187
1.0390017 -0.76201147 2.983 2567982
1.0569614 -0.76941961 3.0120001 2567982
1.0807289 -0.7809149 3.0570002 2699568
1.0940471 -0.78474665 3.072 2633262
1.1020625 -0.78474665 3.072 2764848
1.1212797 -0.79266566 3.1030002 3092271
1.1293759 -0.79266566 3.1030002 3092271
1.1374723 -0.79266566 3.1030002 3092271
1.1400307 -0.78883386 3.0880001 3158064
1.1480877 -0.78883386 3.0880001 3355443
1.1501544 -0.78474665 3.072 3421238
1.1525147 -0.7809149 3.0570002 3289652
1.1491023 -0.77325135 3.0270002 3289652
1.1512668 -0.76941961 3.0120001 3092524
1.1479654 -0.76201147 2.983 3092524
1.1445128 -0.75460345 2.9540002 3421232
1.1467593 -0.75102705 2.9400001 3355439
1.1489329 -0.74745077 2.9260001 3026480
1.1510335 -0.74387449 2.9120002 2895664
1.1586314 -0.74387449 2.9120002 2961457
1.1606225 -0.74029815 2.8980002 2831156
1.1629435 -0.73697728 2.8850002 2962742
1.170471 -0.73697728 2.8850002 3028535
1.1669737 -0.73008007 2.858 2831156
1.1690886 -0.7267592 2.845 3028535
1.1711357 -0.72343832 2.832 3158836
1.173115 -0.72011751 2.8190002 3355696
1.1804702 -0.72011751 2.8190002 2961708
1.1823477 -0.71679664 2.8060002 3225910
1.189669 -0.71679664 2.8060002 3028531
1.1969903 -0.71679664 2.8060002 3159604
1.1987321 -0.71347576 2.7930002 3224627
1.2116328 -0.71679664 2.8060002 3291190
1.2189542 -0.71679664 2.8060002 3356213
1.2262754 -0.71679664 2.8060002 3422006
1.2335968 -0.71679664 2.8060002 3422008
1.240918 -0.71679664 2.8060002 3814967
1.2540225 -0.72011751 2.8190002 4471354
1.2613776 -0.72011751 2.8190002 4272178
1.2687328 -0.72011751 2.8190002 4074799
1.2819726 -0.72343832 2.832 4140592
1.2893618 -0.72343832 2.832 4800317
1.296751 -0.72343832 2.832 4933699
1.3101267 -0.7267592 2.845 4275769
1.3175497 -0.7267592 2.845 4209976
